# .PCD v0.7 - Point Cloud Data file format
VERSION 0.7
FIELDS x y z rgb
SIZE 4 4 4 4
TYPE F F F U
COUNT 1 1 1 1
WIDTH 1316
HEIGHT 1
VIEWPOINT 0 0 0 1 0 0 0
POINTS 1316
DATA ascii
14.71 130.25 29.77 4290921616
14.61 130.5 29.77 4290921616
14.5 130.56 29.780001 4290921616
14.73 130.71001 29.790001 4290921616
14.95 130.53 29.780001 4290921616
14.85 130.91 29.790001 4290921616
14.96 130.45 29.780001 4290921616
15.05 130.64 29.790001 4290921616
15.36 130.45 29.799999 4290921616
15.36 130.64999 29.790001 4290921616
15.15 130.89 29.799999 4290921616
14.75 130.82001 29.799999 4290921616
14.93 131.13 29.82 4290921616
14.99 131.10001 29.809999 4290921616
15.2 130.82001 29.790001 4290921616
15.38 131.05 29.809999 4290921616
15.18 131.32001 29.799999 4290921616
15.45 131.12 29.799999 4290921616
14.55 131.44 29.85 4290921616
14.74 131.28 29.84 4290921616
14.49 131.72 29.870001 4290921616
14.99 131.56 29.85 4290921616
14.8 131.73 29.860001 4290921616
15.25 131.38 29.83 4290921616
14.74 132 29.879999 4290921616
15.08 132.00999 29.9 4290921616
15.24 131.83 29.889999 4290921616
15.73 129.85001 29.75 4290921616
16 129.89 29.75 4290921616
15.51 130.11 29.77 4290921616
15.77 130.14 29.77 4290921616
15.74 130.05 29.75 4290921616
15.57 130.41 29.780001 4290921616
16.27 130.02 29.75 4290921616
16.07 130.27 29.76 4290921616
16.459999 130.07001 29.75 4290921616
16.35 130.34 29.77 4290921616
16.57 130.09 29.76 4290921616
16.709999 130.3 29.77 4290921616
17.09 130.24001 29.77 4290921616
17.309999 130.47 29.74 4290921616
15.71 130.42 29.76 4290921616
15.84 130.52 29.780001 4290921616
16.02 130.34 29.780001 4290921616
15.62 130.78999 29.790001 4290921616
15.59 130.74001 29.780001 4290921616
15.96 130.83 29.780001 4290921616
15.95 130.69 29.77 4290921616
16.280001 130.28 29.76 4290921616
16.16 130.58 29.790001 4290921616
16.27 130.63 29.780001 4290921616
16.280001 130.8 29.799999 4290921616
16.52 130.53 29.77 4290921616
15.74 131.08 29.799999 4290921616
15.51 131.33 29.83 4290921616
15.84 131.02 29.799999 4290921616
15.83 131.31 29.84 4290921616
16.07 131.06 29.809999 4290921616
16.190001 130.97 29.799999 4290921616
16.43 131.03999 29.799999 4290921616
16.530001 130.92999 29.790001 4290921616
16.219999 131.28999 29.82 4290921616
16.5 130.55 29.780001 4290921616
16.700001 130.33 29.76 4290921616
16.870001 130.50999 29.780001 4290921616
16.65 130.78 29.790001 4290921616
16.940001 130.61 29.76 4290921616
17.24 130.52 29.74 4290921616
17.1 130.73 29.77 4290921616
16.75 130.8 29.77 4290921616
16.879999 130.99001 29.790001 4290921616
17.190001 130.88 29.77 4290921616
17.190001 131.16 29.790001 4290921616
17.67 131.09 29.690001 4290921616
15.63 131.58 29.84 4290921616
15.73 131.41 29.85 4290921616
15.5 131.67 29.870001 4290921616
16.1 131.3 29.860001 4290921616
15.97 131.52 29.92 4290921616
17.52 131.62 29.92 4290921616
17.700001 131.46001 29.799999 4290921616
17.549999 132.02 29.959999 4290921616
5.8200002 133.78999 23.74 4294901760
5.9400001 133.47 24.049999 4294901760
4.5900002 135.44 24.139999 4294901760
4.4099998 135.71001 24.08 4294901760
4.1999998 136 23.98 4294901760
4.4099998 136.14 24.15 4294901760
4.5999999 135.85001 24.280001 4294901760
4.6399999 136.28 24.26 4294901760
4.2199998 136.42 24.049999 4294901760
4.4499998 136.55 24.23 4294901760
4.2600002 136.82001 24.139999 4294901760
4.7800002 135.57001 24.35 4294901760
4.5599999 136.83 24.41 4294901760
4.5999999 137.12 24.52 4294901760
4.8299999 134.64 26.84 4290538577
5.1300001 134.67 27.030001 4290538577
4.9299998 134.94 26.959999 4290538577
4.9899998 135.23 27.059999 4290538577
5.4400001 133.88 26.860001 4294901760
5.52 134.17999 27.040001 4294901760
5.3200002 134.42 27.049999 4290538577
5.6300001 134.41 27.18 4294901760
5.4000001 134.67999 27.17 4290538577
5.1799998 134.96001 27.120001 4290538577
5.5999999 134.8 27.309999 4290538577
5.3800001 135.08 27.27 4290538577
4.9699998 135.64 27.16 4290538577
4.54 136.16 27.08 4290538577
4.7600002 135.91 27.110001 4290538577
4.98 136 27.27 4290538577
4.77 136.28 27.26 4290538577
3.23 137 26.82 4290538577
3.1600001 137.28999 27.190001 4290538577
4.1700001 136.3 26.870001 4290538577
4.3499999 136.42 27.09 4290538577
4.5599999 136.55 27.27 4290538577
4.7399998 136.81 27.43 4290538577
5.1700001 135.36 27.209999 4290538577
19.450001 137.25 23.66 4294901760
19.360001 138.38 23.709999 4294901760
19.42 137.53999 23.85 4294901760
19.030001 138.33 24.02 4294901760
19.200001 138.64 23.860001 4294901760
0.88 141.66 24.049999 4294901760
1.09 141.37 24.15 4294901760
1.3200001 141.47 24.27 4294901760
1.12 141.74001 24.18 4294901760
0.79000002 141.67999 26.870001 4290538577
0.81 142.14 26.98 4290538577
1 141.38 26.99 4290538577
1.22 141.57001 27.139999 4290538577
1.37 141.82001 27.190001 4290538577
1.55 141.53999 27.309999 4290538577
1.02 141.86 27.040001 4290538577
1.17 142.09 27.110001 4290538577
0.97000003 142.34 27.049999 4290538577
1.51 142.05 27.110001 4290538577
2.24 141.60001 30.299999 4294901760
0.14 150.3 23.940001 4294901760
0.52999997 150.23 23.92 4294901760
0.28 150.32001 23.950001 4294901760
0.25999999 150.48 23.959999 4294901760
0.49000001 150.17999 23.92 4294901760
0.050000001 150.39999 23.969999 4294901760
0 150.74001 24.01 4294901760
0.059999999 150.71001 24.02 4294901760
0.40000001 150.61 23.969999 4294901760
0.52999997 150.58 23.969999 4294901760
0.36000001 150.69 24 4294901760
0.50999999 150.83 23.99 4294901760
0.63 150.99001 24.01 4294901760
0.89999998 150.09 23.92 4294901760
0.67000002 150.35001 23.93 4294901760
0.92000002 150.21001 23.91 4294901760
0.95999998 150.35001 23.92 4294901760
1.1900001 150.52 23.93 4294901760
1.5700001 150.49001 23.93 4294901760
2.52 150.35001 23.9 4294901760
2.6800001 150.47 23.889999 4294901760
0.74000001 150.59 23.950001 4294901760
0.77999997 150.46001 23.940001 4294901760
1.21 150.50999 23.93 4294901760
0.94 150.78 23.950001 4294901760
0.80000001 150.85001 23.98 4294901760
1.0599999 150.75999 23.950001 4294901760
1.09 150.99001 23.959999 4294901760
1.34 150.74001 23.950001 4294901760
1.48 150.91 23.969999 4294901760
1.61 151.13 23.99 4294901760
1.72 150.64999 23.950001 4294901760
2.3499999 150.67 23.950001 4294901760
2.1900001 150.31 26.09 4294901760
1.9299999 150.53999 26.190001 4294901760
2.0699999 150.25999 26.129999 4294901760
2.4100001 150.09 26.049999 4294901760
2.4300001 150.16 26.07 4294901760
2.4200001 150.48 26.16 4294901760
1.9299999 150.48 26.23 4294901760
1.6799999 150.75999 26.280001 4294901760
2.1300001 150.72 26.309999 4294901760
1.88 150.96001 26.360001 4294901760
1.95 150.81 26.35 4294901760
2.22 150.75 26.309999 4294901760
2.3699999 150.53 26.23 4294901760
2.7 150.41 26.110001 4294901760
2.6099999 150.67 26.200001 4294901760
2.3399999 150.91 26.309999 4294901760
2.6600001 150.8 26.280001 4294901760
2.51 151.10001 26.35 4294901760
1.8 150.95 26.4 4294901760
2.0999999 151.14 26.389999 4294901760
2.24 151.08 26.41 4294901760
1.78 151.21001 26.5 4294901760
2.0799999 151.21001 26.469999 4294901760
2.5 151.00999 26.360001 4294901760
2.23 151.33 26.49 4294901760
2.52 151.35001 26.450001 4294901760
2.0899999 151.49001 26.58 4294901760
1.9299999 151.62 26.639999 4294901760
2.22 151.88 26.73 4294901760
2.3699999 151.48 26.540001 4294901760
2.6700001 151.75 26.610001 4294901760
2.3900001 151.75999 26.66 4294901760
2.48 152.12 26.780001 4294901760
2.6800001 152.03 26.73 4294901760
2.9300001 150.24001 23.809999 4294901760
3.29 150.37 23.790001 4294901760
3.54 150.5 23.85 4294901760
2.8 150.62 23.940001 4294901760
3.0799999 150.89 23.99 4294901760
3.3 150.66 23.91 4294901760
3.5799999 150.91 23.969999 4294901760
4.4200001 150.92999 23.93 4294901760
4.77 150.91 23.91 4294901760
4.73 151.21001 24.030001 4294901760
5.29 151.10001 23.780001 4294901760
5.77 151.19 23.74 4294901760
5.0599999 151.17999 23.959999 4294901760
5.6399999 151.37 24 4294901760
6.1599998 151.35001 24 4294901760
6.1300001 151.45 24 4294901760
6.4200001 151.44 24.02 4294901760
6.3899999 151.38 23.84 4294901760
6.6999998 151.35001 23.82 4294901760
6.6900001 151.53 23.969999 4294901760
5.0500002 151.48 24.15 4294901760
5.9499998 151.62 24.120001 4294901760
6.23 151.88 24.18 4294901760
6.71 151.64999 24.030001 4294901760
6.4299998 151.72 24.09 4294901760
6.75 151.98 24.200001 4294901760
2.98 149.98 25.959999 4294901760
2.72 150.23 26.049999 4294901760
3.1800001 150.19 25.99 4294901760
2.8900001 150.42999 26.1 4294901760
3.51 150.21001 25.98 4294901760
3.26 150.44 26.07 4294901760
3.5899999 150.53999 26.049999 4294901760
3.6099999 150.37 26.02 4294901760
3.8299999 150.32001 25.98 4294901760
4.1700001 150.44 25.98 4294901760
3.1900001 150.42 26.09 4294901760
3.01 150.66 26.16 4294901760
2.99 150.67 26.219999 4294901760
2.75 150.88 26.290001 4294901760
3.05 150.99001 26.290001 4294901760
3.3199999 150.77 26.16 4294901760
3.48 150.69 26.15 4294901760
3.6300001 150.92 26.209999 4294901760
2.79 151.23 26.370001 4294901760
2.9400001 151.06 26.34 4294901760
3.28 150.94 26.299999 4294901760
3.3499999 151.14999 26.33 4294901760
3.77 150.96001 26.24 4294901760
3.6500001 151.31 26.35 4294901760
3.5599999 151.21001 26.35 4294901760
3.9000001 150.67999 26.08 4294901760
3.9100001 150.64999 26.09 4294901760
3.9100001 151.09 26.26 4294901760
4.1999998 150.92 26.139999 4294901760
4.4000001 151.09 26.219999 4294901760
4.6900001 150.89 26.27 4294901760
4.1199999 151.35001 26.309999 4294901760
4.04 151.22 26.26 4294901760
4.52 151.19 26.35 4294901760
6.4400001 150.92999 26.360001 4294901760
7.0599999 151.53 23.950001 4294901760
6.9899998 151.61 23.9 4294901760
7.02 151.91 24.139999 4294901760
7.3000002 151.87 24.059999 4294901760
7.6199999 152.13 24.200001 4294901760
9.3999996 152.35001 24.139999 4294901760
10.2 151.97 23.98 4294901760
10.31 152.23 24.02 4294901760
10.56 151.98 23.98 4294901760
10.8 152.12 23.99 4294901760
10.07 152.21001 24.02 4294901760
10.06 152.46001 24.08 4294901760
10.29 152.60001 24.09 4294901760
10.37 152.49001 24.09 4294901760
10.55 152.36 24.02 4294901760
10.53 152.28999 24 4294901760
9.2600002 152.62 24.25 4294901760
10.14 152.66 24.16 4294901760
10.66 152.78 24.110001 4294901760
10.42 152.92999 24.18 4294901760
2.78 151.28 26.42 4294901760
3.0799999 151.39 26.42 4294901760
3.23 151.33 26.42 4294901760
3.4000001 151.53 26.440001 4294901760
4.5599999 151.35001 26.4 4294901760
4.3099999 151.61 26.41 4294901760
4.8000002 151.09 26.43 4294901760
5.5300002 150.72 26.43 4294901760
5.8000002 150.82001 26.42 4294901760
6.0500002 150.91 26.41 4294901760
5.8000002 151.14999 26.459999 4294901760
6.1799998 151.16 26.440001 4294901760
6.6500001 151.13 26.43 4294901760
5.9200001 151.19 26.459999 4294901760
5.9099998 151.41 26.5 4294901760
6.25 151.11 26.450001 4294901760
6.1500001 151.64 26.51 4294901760
6.21 151.46001 26.5 4294901760
6.4000001 151.38 26.48 4294901760
6.5300002 151.39999 26.49 4294901760
6.8400002 151.3 26.48 4294901760
2.8099999 151.61 26.530001 4294901760
3.0699999 151.53999 26.49 4294901760
3.0899999 151.86 26.620001 4294901760
3.53 151.61 26.49 4294901760
3.3699999 151.81 26.58 4294901760
2.97 152.02 26.700001 4294901760
3.8599999 151.5 26.4 4294901760
3.8399999 151.89 26.559999 4294901760
4.1500001 151.75999 26.48 4294901760
4.5700002 151.71001 26.530001 4294901760
4.6700001 151.72 26.6 4294901760
5.6199999 151.64999 26.629999 4294901760
6.0100002 151.66 26.57 4294901760
5.9000001 151.89999 26.709999 4294901760
6.8099999 151.67999 26.530001 4294901760
5.5900002 152.00999 30.299999 4294901760
5.3400002 152.27 30.32 4294901760
5.48 152.03 30.299999 4294901760
5.6700001 152.28999 30.32 4294901760
5.4000001 152.31 30.309999 4294901760
5.4499998 152.53 30.33 4294901760
5.7399998 152.31 30.309999 4294901760
5.9000001 152.05 30.290001 4294901760
5.9400001 152.13 30.290001 4294901760
6 152.31 30.309999 4294901760
5.75 152.56 30.33 4294901760
6.1799998 152.49001 30.33 4294901760
6.2199998 152.39999 30.309999 4294901760
5.3099999 152.53999 30.309999 4294901760
5.6599998 152.60001 30.32 4294901760
5.5700002 152.82001 30.34 4294901760
6.02 152.58 30.32 4294901760
5.96 152.75 30.33 4294901760
5.9499998 152.87 30.35 4294901760
6.29 152.86 30.35 4294901760
6.5 152.67999 30.33 4294901760
5.8699999 153.09 30.379999 4294901760
6.5599999 153.14 30.360001 4294901760
7.0300002 151.19 26.459999 4294901760
6.7800002 151.42 26.49 4294901760
7.0900002 151.53999 26.51 4294901760
7.3600001 151.39999 26.51 4294901760
7.3299999 151.31 26.48 4294901760
7.6300001 151.44 26.48 4294901760
7.3800001 151.7 26.49 4294901760
7.7600002 151.67999 26.5 4294901760
8.0100002 151.42 26.48 4294901760
7.1100001 151.57001 26.51 4294901760
7.6199999 151.67999 26.51 4294901760
7.3899999 151.84 26.559999 4294901760
8.6400003 153.28 26.92 4294901760
8.5200005 153.22 26.950001 4294901760
8.8000002 153.50999 26.969999 4294901760
9.7700005 152.96001 26.870001 4294901760
8.8699999 153.03 26.91 4294901760
9.3500004 152.89 26.9 4294901760
9.0600004 153.25 26.940001 4294901760
9.1599998 153.06 26.92 4294901760
9.3100004 152.99001 26.889999 4294901760
9.5299997 153.19 26.93 4294901760
8.9099998 153.2 26.940001 4294901760
9.2799997 153.42 26.959999 4294901760
9.1800003 153.48 26.98 4294901760
9.6199999 153.17 26.93 4294901760
9.4499998 153.35001 26.959999 4294901760
9.6400003 153.48 26.959999 4294901760
9.7399998 153.63 26.969999 4294901760
10.14 153.00999 26.870001 4294901760
9.8800001 153.25 26.92 4294901760
10.3 153.28 26.9 4294901760
9.9899998 153.17 26.92 4294901760
10.37 153.22 26.889999 4294901760
9.8999996 153.45 26.940001 4294901760
10.26 153.45 26.91 4294901760
8.29 153.84 26.93 4294901760
8.5600004 153.66 26.969999 4294901760
8.6000004 154.09 27.040001 4294901760
9.1000004 153.78 27.02 4294901760
8.8599997 153.89999 27.07 4294901760
9.4399996 153.77 26.969999 4294901760
9.3800001 154.05 27.030001 4294901760
9.71 154.05 26.959999 4294901760
9.1599998 154.16 27.17 4294901760
9.6199999 154.34 26.99 4294901760
10.19 153.74001 26.93 4294901760
10 153.92 26.950001 4294901760
10.01 154.33 26.98 4294901760
12.62 152.95 22.879999 4294901760
13.01 153.09 23.24 4294901760
11.71 151.66 26.200001 4278241058
12.08 151.7 26.23 4294901760
12.38 151.78999 26.25 4294901760
11.43 152.00999 26.309999 4278241058
11.5 151.89 26.23 4278241058
11.91 151.82001 26.209999 4278241058
11.83 151.94 26.26 4278241058
11.56 152.19 26.34 4278241058
11.77 151.99001 26.309999 4278241058
11.85 152.28999 26.360001 4278241058
12.1 152.03999 26.33 4278241058
12.22 152.08 26.33 4278241058
12.24 152.28999 26.34 4278241058
12.5 152.05 26.290001 4278241058
12.48 152.06 26.290001 4278241058
12.67 152.25999 26.32 4278241058
12.83 152.10001 26.309999 4278241058
12.42 152.49001 26.370001 4278241058
12.86 152.41 26.34 4278241058
12.78 152.33 26.35 4278241058
12.92 152 26.280001 4278241058
13.12 152.16 26.299999 4278241058
13.21 152.14999 26.309999 4278241058
13.3 152.3 26.32 4278241058
13.54 152.03999 26.299999 4278241058
13.83 152.14999 26.290001 4278241058
13.04 152.56 26.360001 4278241058
13.12 152.37 26.35 4278241058
13.35 152.62 26.370001 4278241058
13.58 152.39 26.33 4278241058
13.49 152.42 26.35 4278241058
13.81 152.33 26.33 4278241058
13.73 152.64999 26.370001 4278241058
14.5 152.34 26.34 4278241058
13.99 152.41 26.33 4278241058
14.26 152.57001 26.379999 4278241058
15.68 153.46001 24.42 4294901760
15.74 153.69 24.389999 4294901760
15.97 153.58 24.42 4294901760
16.219999 153.73 24.4 4294901760
16.200001 153.74001 24.42 4294901760
16.59 153.75999 24.450001 4294901760
16.9 153.83 24.530001 4294901760
17.18 153.88 24.74 4294901760
15.68 154.02 24.41 4294901760
15.96 154.3 24.43 4294901760
16 153.98 24.389999 4294901760
16.280001 154.23 24.43 4294901760
16.52 154 24.42 4294901760
16.780001 153.84 24.42 4294901760
16.780001 154.27 24.459999 4294901760
16.549999 154.49001 24.450001 4294901760
17.07 154.10001 24.5 4294901760
11.75 152.28999 26.41 4278241058
12.07 152.25999 26.370001 4278241058
12.36 152.53 26.42 4278241058
12.5 152.36 26.370001 4278241058
12.58 152.67 26.41 4278241058
12.8 152.64 26.42 4278241058
12.79 152.81 26.43 4278241058
12.64 152.81 26.469999 4278241058
13.06 152.59 26.389999 4278241058
13.12 152.85001 26.42 4278241058
13.4 152.64999 26.389999 4278241058
13.77 152.67999 26.4 4278241058
14.1 152.59 26.389999 4278241058
14.03 152.81 26.41 4278241058
14.42 152.48 26.379999 4278241058
13.09 152.92 26.450001 4278241058
13.34 152.86 26.43 4278241058
13.48 152.91 26.42 4278241058
13.69 152.91 26.440001 4278241058
13.8 153.05 26.450001 4278241058
14.05 152.95 26.450001 4278241058
14.16 153.12 26.459999 4278241058
14.38 152.87 26.440001 4278241058
14.84 153.16 26.809999 4278241058
15.29 153.41 26.870001 4278241058
15.38 153.22 26.860001 4278241058
15.56 153.14999 26.85 4278241058
15.7 153.42 26.860001 4278241058
15.05 153.67 26.879999 4278241058
15.46 153.67999 26.870001 4278241058
15.86 153.36 26.860001 4278241058
15.02 153.71001 26.879999 4278241058
15.2 153.92999 26.92 4278241058
15.37 153.64 26.889999 4278241058
15.65 153.50999 26.870001 4278241058
15.81 153.74001 26.9 4278241058
15.92 153.77 26.91 4278241058
16.290001 153.25999 26.83 4278241058
16.629999 153.38 26.82 4278241058
16.040001 153.5 26.870001 4278241058
16.389999 153.60001 26.870001 4278241058
16.870001 153.50999 26.82 4278241058
16.620001 153.75 26.879999 4278241058
16.91 153.81 26.870001 4278241058
16.16 153.63 26.9 4278241058
16.139999 153.84 26.92 4278241058
16.6 153.67999 26.889999 4278241058
17.17 153.59 26.780001 4278241058
17.17 153.89999 26.860001 4278241058
18.049999 154.00999 26.530001 4278241058
11.76 154.63 26.940001 4278241058
11.92 153.88 27.08 4278241058
12.17 154.24001 26.950001 4278241058
12.12 154.63 26.940001 4278241058
12.68 154.25999 26.959999 4278241058
12.45 154.52 26.940001 4278241058
12.05 154.92 26.940001 4278241058
12.4 154.92999 26.93 4278241058
12.73 154.81 26.93 4278241058
12.67 155.21001 26.91 4278241058
12.94 154.56 26.940001 4278241058
14.88 154.19 26.940001 4278241058
13 155.09 26.92 4278241058
15.32 153.99001 26.93 4278241058
15.36 154.21001 26.959999 4278241058
15.16 154.14 26.950001 4278241058
15.12 154.45 26.98 4278241058
15.58 153.97 26.93 4278241058
15.68 153.92999 26.93 4278241058
15.9 154.08 26.950001 4278241058
15.65 154.34 26.98 4278241058
15.61 154.25999 26.98 4278241058
15.97 154.21001 26.969999 4278241058
15.9 154.46001 27 4278241058
15.16 154.47 26.98 4278241058
15.39 154.59 27.01 4278241058
15.44 154.42999 27 4278241058
15.16 154.75999 27.01 4278241058
15.43 154.73 27.02 4278241058
15.89 154.53 27.02 4278241058
15.72 154.7 27.049999 4278241058
16.190001 154.03999 26.940001 4278241058
16.129999 154.23 26.959999 4278241058
16.360001 153.99001 26.93 4278241058
16.459999 153.92999 26.92 4278241058
16.469999 154.3 26.959999 4278241058
16.67 154.03999 26.92 4278241058
16.870001 153.96001 26.9 4278241058
16.93 154.16 26.91 4278241058
16.440001 154.28 26.959999 4278241058
16.75 154.21001 26.940001 4278241058
16.66 154.41 26.959999 4278241058
16.209999 154.52 26.99 4278241058
16.25 154.48 26.99 4278241058
16.4 154.67 27 4278241058
16.879999 154.61 26.959999 4278241058
16.74 154.58 26.959999 4278241058
16.620001 154.86 26.99 4278241058
16.51 154.77 26.99 4278241058
15.26 155.14999 27.120001 4278241058
15.49 155.03 27.120001 4278241058
15.77 154.98 27.200001 4278241058
16.15 154.81 27.030001 4278241058
16.01 154.96001 27.1 4278241058
16.43 155.09 27.030001 4278241058
16.27 155.24001 27.08 4278241058
16.040001 155.27 27.139999 4278241058
16.790001 155.06 26.98 4278241058
16.709999 155.38 27.02 4278241058
17.18 153.88 26.870001 4278241058
17.389999 154.10001 26.83 4278241058
17.440001 154.14999 26.860001 4278241058
17.83 154.24001 26.620001 4278241058
17.91 154.25999 26.6 4278241058
17.91 154.50999 26.709999 4278241058
17.700001 154.44 26.84 4278241058
17.969999 154.73 26.76 4278241058
17.129999 154.34 26.92 4278241058
17.16 154.24001 26.92 4278241058
17.030001 154.5 26.940001 4278241058
17.26 154.64 26.940001 4278241058
17.440001 154.52 26.92 4278241058
17.030001 154.89999 26.959999 4278241058
17.299999 154.78 26.950001 4278241058
17.34 154.97 26.959999 4278241058
17.610001 154.73 26.889999 4278241058
17.719999 154.83 26.91 4278241058
17.799999 154.86 26.98 4278241058
18.190001 154.28 26.57 4278241058
18.42 154.42999 26.57 4278241058
18.700001 154.21001 26.49 4278241058
18.93 154.33 26.51 4278241058
18.469999 154.42999 26.559999 4278241058
18.129999 154.64999 26.709999 4278241058
18.18 154.53999 26.68 4278241058
18.450001 154.83 26.66 4278241058
18.67 154.58 26.57 4278241058
19.01 154.53999 26.559999 4278241058
18.77 154.72 26.610001 4278241058
18.84 154.84 26.610001 4278241058
17.01 154.87 26.959999 4278241058
17.08 155.34 27 4278241058
16.219999 154.14999 29.940001 4294901760
16.219999 154.32001 29.950001 4294901760
15.99 154.42999 29.99 4294901760
16.280001 154.67999 30.040001 4294901760
16.52 154.59 30 4294901760
16.08 154.83 30.09 4294901760
16.559999 154.92999 30.1 4294901760
18.129999 154.16 29.33 4283721922
18.209999 154.47 29.4 4283721922
18.51 154.25 29.26 4283721922
18.82 154.33 29.209999 4283721922
18.969999 154.45 29.23 4283721922
18.219999 154.42999 29.4 4283721922
18.51 154.55 29.370001 4283721922
18.65 154.5 29.32 4283721922
18.67 154.67999 29.379999 4283721922
18.889999 154.39 29.24 4283721922
18.93 154.7 29.360001 4283721922
18.66 154.94 29.450001 4283721922
18.950001 154.78999 29.42 4283721922
18.27 154.75999 29.459999 4283721922
18.24 154.81 29.51 4283721922
18.4 154.92999 29.469999 4283721922
18.5 154.71001 29.440001 4283721922
18.41 155.17999 29.52 4283721922
18.530001 155.08 29.52 4283721922
18.780001 154.99001 29.48 4283721922
18.84 155.11 29.48 4283721922
18.799999 155.35001 29.549999 4283721922
18.25 155.60001 29.610001 4283721922
18.639999 155.58 29.6 4283721922
18.540001 155.87 29.67 4283721922
18.93 155.86 29.639999 4283721922
18.309999 155.95 29.690001 4283721922
18.450001 156.31 29.889999 4283721922
18.83 156.13 29.74 4283721922
18.610001 156.21001 29.809999 4283721922
18.92 156.47 29.9 4283721922
18.469999 156.58 29.98 4283721922
18.74 156.57001 29.950001 4283721922
18.76 156.86 30.030001 4283721922
2.3900001 138.35001 32.759998 4294901760
2.9300001 139.82001 33.130001 4294901760
2.71 140.10001 33.080002 4294901760
1.63 141.03 32.689999 4294901760
1.89 141.17 32.830002 4294901760
2.3 140.66 32.91 4294901760
2.51 140.38 32.990002 4294901760
2.3099999 141.14 32.939999 4294901760
2.52 140.88 32.990002 4294901760
2.5599999 141.25 33.02 4294901760
2.73 140.60001 33.060001 4294901760
2.77 141 33.07 4294901760
2.8699999 139.73 35.98 4294901760
2 139.96001 35.740002 4294901760
2.23 140.11 35.810001 4294901760
2.4300001 139.85001 35.849998 4294901760
2.6800001 139.98 35.919998 4294901760
2.47 140.24001 35.880001 4294901760
2.8099999 140.31 35.970001 4294901760
1.8200001 140.60001 35.759998 4294901760
1.8099999 141.06 35.77 4294901760
1.58 141.32001 35.75 4294901760
2.03 140.35001 35.779999 4294901760
2.25 140.5 35.84 4294901760
2.03 140.77 35.810001 4294901760
2.4000001 140.82001 35.869999 4294901760
2.5999999 140.56 35.919998 4294901760
2.1900001 141.07001 35.84 4294901760
1.96 141.33 35.830002 4294901760
2.4100001 141.3 35.869999 4294901760
2.6300001 141.03999 35.889999 4294901760
2.54 137.75999 38.650002 4285060671
2.9400001 136.58 41.549999 4289357452
2.9400001 137.63 38.880001 4285060671
2.73 137.87 38.849998 4285060671
2.51 138.12 38.830002 4285060671
2.74 138.24001 38.970001 4285060671
2.3 138.38 38.779999 4285060671
2.0899999 138.66 38.709999 4285060671
2.3099999 138.78999 38.84 4285060671
2.52 138.50999 38.919998 4285060671
1.83 139.89 38.77 4285060671
2.04 139.63 38.799999 4285060671
2.29 139.8 38.830002 4285060671
2.51 139.55 38.849998 4285060671
2.8099999 139.58 38.849998 4285060671
2.5899999 139.82001 38.84 4285060671
2.0699999 140.07001 38.810001 4285060671
2.3699999 140.07001 38.84 4285060671
2.1400001 140.33 38.82 4285060671
1.85 140.35001 38.759998 4285060671
1.74 141.14 38.740002 4285060671
2.1900001 140.58 38.830002 4285060671
1.92 140.62 38.77 4285060671
2.3900001 140.66 38.869999 4285060671
1.96 140.86 38.779999 4285060671
2.1900001 140.91 38.830002 4285060671
1.98 141.16 38.799999 4285060671
2.24 141.25999 38.84 4285060671
2.48 141 38.860001 4285060671
2.55 141.32001 38.869999 4285060671
2.9000001 137.78999 41.880001 4289357452
2.9100001 138.06 41.919998 4289357452
3.05 137.78 41.919998 4289357452
2.8599999 138.02 41.880001 4289357452
2.7 138.33 41.880001 4289357452
2.75 138.27 41.869999 4289357452
2.9000001 138.39999 41.950001 4289357452
3.01 138.52 42 4289357452
2.96 138.72 42.029999 4289357452
2.8 139.33 42 4289357452
2.5899999 139.58 41.970001 4289357452
2.96 139.50999 41.990002 4289357452
2.76 139.59 41.959999 4289357452
2.75 139.75 41.98 4289357452
2.3 140.25 41.990002 4289357452
2.53 140 42 4289357452
2.8299999 140.05 42 4289357452
2.6900001 139.92 41.990002 4289357452
2.5799999 140.3 42.029999 4289357452
2.23 140.39 41.98 4289357452
2.3599999 140.56 42.02 4289357452
2.71 140.37 42.029999 4289357452
2.96 140.21001 42.009998 4289357452
2.8599999 140.42999 42.040001 4289357452
2.6199999 140.69 42.049999 4289357452
2.52 140.66 42.080002 4289357452
2.95 140.67 42.029999 4289357452
2.4100001 140.96001 42.040001 4289357452
2.3099999 141.02 42.029999 4289357452
2.76 141.06 42.060001 4289357452
2.52 141.32001 42.07 4289357452
2.78 140.95 42.07 4289357452
5.2600002 129.92 32.529999 4294901760
5.3299999 130.28999 32.560001 4294901760
5.54 130.52 32.650002 4294901760
5.75 130.25 32.689999 4294901760
6.0500002 130.32001 32.779999 4294901760
5.8400002 130.57001 32.779999 4294901760
6.23 130.48 32.869999 4294901760
5.4400001 131.07001 32.75 4294901760
5.6399999 130.82001 32.790001 4294901760
6.02 130.73 32.869999 4294901760
5.8000002 131.00999 32.84 4294901760
6 131.16 32.91 4294901760
4.9299998 131.27 32.630001 4294901760
4.73 131.5 32.599998 4294901760
5.0100002 131.56 32.779999 4294901760
4.79 131.81 32.799999 4294901760
5.1199999 131.78999 32.91 4294901760
4.0900002 133.10001 32.720001 4294901760
4.6700001 132.72 32.959999 4294901760
4.5 133 32.84 4294901760
4.9499998 132.88 32.98 4294901760
4.75 133.17 32.889999 4294901760
5.23 131.31 32.77 4294901760
5.5700002 131.28 32.860001 4294901760
5.3400002 131.53999 32.880001 4294901760
5.5599999 131.67999 32.959999 4294901760
5.7800002 131.42 32.939999 4294901760
5.3099999 131.94 33 4294901760
5.5999999 132.08 33.040001 4294901760
5.2199998 133.16 32.970001 4294901760
5.4200001 132.88 33.029999 4294901760
8.75 129.41 33.02 4294901760
9.5600004 129.62 32.630001 4294901760
5.0300002 130.37 35.580002 4294901760
5.2199998 130.50999 35.73 4294901760
5.02 130.78 35.689999 4294901760
4.8099999 131.07001 35.599998 4294901760
5.0500002 131.19 35.75 4294901760
5.4400001 129.81 35.73 4294901760
5.2399998 130.11 35.599998 4294901760
5.6199999 130 35.799999 4294901760
5.8099999 129.74001 35.860001 4294901760
6.0799999 129.88 35.93 4294901760
5.8699999 130.14999 35.869999 4294901760
5.4200001 130.24001 35.779999 4294901760
5.6599998 130.42 35.84 4294901760
5.4499998 130.67999 35.82 4294901760
6.1599998 130.39 35.900002 4294901760
5.9499998 130.66 35.880001 4294901760
5.25 130.94 35.790001 4294901760
5.7199998 130.94 35.849998 4294901760
6.0799999 131.07001 35.869999 4294901760
6.27 130.78 35.93 4294901760
4.8600001 131.46001 35.689999 4294901760
4.6599998 131.74001 35.599998 4294901760
5.0799999 131.73 35.779999 4294901760
4.8800001 131.99001 35.75 4294901760
5.5100002 131.21001 35.830002 4294901760
5.29 131.47 35.810001 4294901760
5.6399999 131.60001 35.84 4294901760
5.8600001 131.32001 35.860001 4294901760
5.9099998 131.7 35.880001 4294901760
5.4200001 131.86 35.830002 4294901760
5.1999998 132.12 35.810001 4294901760
5.5100002 132.19 35.849998 4294901760
5.71 131.95 35.860001 4294901760
5.0799999 130.67999 38.630001 4285060671
4.9299998 131.3 38.630001 4285060671
4.7399998 131.53999 38.619999 4285060671
4.5500002 131.78999 38.59 4285060671
4.54 132.2 38.509998 4285060671
4.7399998 131.92 38.66 4285060671
4.0900002 132.67999 38.650002 4285060671
4.3099999 132.44 38.619999 4285060671
11.49 130.14 30.719999 4294901760
11.68 130.35001 30.790001 4294901760
14.49 131.07001 31.75 4294901760
14.18 130.97 32.080002 4294901760
15.91 131.28 32.360001 4294901760
16.940001 131.38 32.41 4294901760
16.209999 131.42 32.560001 4294901760
12.06 129.34 35.330002 4294901760
12.34 129.58 35.25 4294901760
12.39 129.45 35.360001 4294901760
12.17 129.67 35.459999 4294901760
12.37 129.92 35.470001 4294901760
12.45 129.95 35.529999 4294901760
12.75 129.61 35.310001 4294901760
12.58 129.7 35.419998 4294901760
12.93 129.67999 35.369999 4294901760
12.61 129.83 35.41 4294901760
12.69 129.92 35.450001 4294901760
14.37 129.75 36.389999 4294901760
14.36 130.24001 36.43 4294901760
14.8 129.72 36.400002 4294901760
15.13 129.87 36.400002 4294901760
14.58 129.98 36.419998 4294901760
14.9 130.12 36.439999 4294901760
14.55 130.03999 36.419998 4294901760
14.67 130.38 36.459999 4294901760
15.4 130.03999 36.41 4294901760
15.37 129.95 36.41 4294901760
15.03 130.05 36.43 4294901760
15.18 130.28 36.450001 4294901760
14.45 130.45 36.459999 4294901760
14.45 130.64 36.48 4294901760
14.81 130.33 36.459999 4294901760
14.74 130.78 36.509998 4294901760
14.96 130.53 36.48 4294901760
15.27 130.32001 36.450001 4294901760
15.33 130.56 36.470001 4294901760
15.07 130.60001 36.5 4294901760
15.12 130.8 36.509998 4294901760
15.52 130.60001 36.470001 4294901760
14.73 130.74001 36.52 4294901760
14.87 131.03 36.580002 4294901760
15 131.00999 36.580002 4294901760
15.27 131.03 36.549999 4294901760
15.32 130.87 36.540001 4294901760
15 131.27 36.669998 4294901760
14.83 131.27 36.669998 4294901760
15.27 131.28999 36.66 4294901760
15.78 130.07001 36.389999 4294901760
15.55 130.32001 36.43 4294901760
15.94 130.3 36.419998 4294901760
16.450001 130.19 36.41 4294901760
16.23 130.42999 36.43 4294901760
15.63 130.24001 36.419998 4294901760
15.73 130.53999 36.439999 4294901760
16.01 130.25 36.41 4294901760
15.52 130.78999 36.48 4294901760
15.89 130.53 36.439999 4294901760
15.8 130.94 36.48 4294901760
16.02 130.69 36.450001 4294901760
16.540001 130.44 36.419998 4294901760
16.26 130.52 36.43 4294901760
15.77 130.88 36.5 4294901760
15.54 131.17 36.560001 4294901760
15.56 131.13 36.549999 4294901760
15.85 131.34 36.580002 4294901760
16.15 130.82001 36.470001 4294901760
16.5 130.78999 36.439999 4294901760
16.030001 131.16 36.5 4294901760
16.530001 130.61 36.439999 4294901760
17.200001 130.98 36.349998 4294901760
17.4 130.7 36.419998 4294901760
16.719999 131.06 36.400002 4294901760
17.52 130.78999 36.450001 4294901760
17.870001 130.17 36.369999 4294901760
17.610001 130.42999 36.41 4294901760
18.209999 130.32001 36.380001 4294901760
18.450001 130.5 36.389999 4294901760
17.969999 130.57001 36.419998 4294901760
18.030001 130.42999 36.41 4294901760
17.73 130.83 36.459999 4294901760
17.83 130.67999 36.439999 4294901760
18.23 130.74001 36.43 4294901760
18.030001 130.97 36.470001 4294901760
18.290001 130.71001 36.43 4294901760
17.799999 131.21001 36.509998 4294901760
17.75 131.06 36.490002 4294901760
17.99 131.32001 36.549999 4294901760
18.08 130.96001 36.48 4294901760
18.309999 131.07001 36.470001 4294901760
18.540001 130.98 36.459999 4294901760
18.52 131.19 36.48 4294901760
18.07 131.32001 36.52 4294901760
18.33 131.23 36.52 4294901760
18.780001 130.53999 36.380001 4294901760
18.969999 130.71001 36.400002 4294901760
18.540001 130.8 36.43 4294901760
18.75 130.95 36.439999 4294901760
19.309999 130.75999 36.389999 4294901760
19.09 131.00999 36.43 4294901760
19.57 130.77 36.389999 4294901760
19.530001 131 36.41 4294901760
18.889999 130.83 36.450001 4294901760
18.870001 131.27 36.459999 4294901760
18.790001 131.25 36.48 4294901760
19.27 130.84 36.400002 4294901760
19.299999 131.25 36.439999 4294901760
19.120001 131.11 36.439999 4294901760
19.1 131.5 36.459999 4294901760
19.52 131.12 36.41 4294901760
18.84 131.72 36.560001 4294901760
19.370001 131.39 36.459999 4294901760
15.81 131.39 36.619999 4294901760
18.030001 131.69 36.619999 4294901760
18.26 131.58 36.599998 4294901760
18.17 131.8 36.68 4294901760
18.09 132.05 36.740002 4294901760
3.55 136.61 32.75 4294901760
3.6800001 136.82001 32.84 4294901760
4.0100002 136.88 32.84 4294901760
3.8 137.13 32.849998 4294901760
4.2199998 136.64999 32.810001 4294901760
4.6100001 136.63 32.830002 4294901760
4.3699999 136.89999 32.830002 4294901760
4.1500001 137.16 32.84 4294901760
4.5500002 137.13 32.849998 4294901760
4.7800002 136.85001 32.849998 4294901760
4.9000001 137.17999 32.880001 4294901760
3.9200001 137.42 32.860001 4294901760
4.3200002 137.39 32.860001 4294901760
4.0999999 137.64999 32.869999 4294901760
4.4499998 137.67 32.889999 4294901760
4.6700001 137.42 32.880001 4294901760
3.6900001 137.00999 35.689999 4294901760
4.0100002 137.11 35.810001 4294901760
3.75 137.34 35.900002 4294901760
4.1799998 137.35001 35.939999 4294901760
4.3200002 137.55 36.099998 4294901760
7.8600001 127.98 38.810001 4289383150
7.8699999 127.73 38.779999 4289383150
8.1300001 127.8 38.779999 4289383150
7.9000001 128.06 38.810001 4289383150
8.2799997 128.03 38.799999 4289383150
8.5799999 128.14 38.810001 4289383150
8.8900003 128.2 38.82 4289383150
9.2399998 128.22 38.84 4289383150
7.6999998 128.31 38.830002 4289383150
7.7399998 128.25 38.82 4289383150
8.0699997 128.28 38.82 4289383150
7.8499999 128.53999 38.84 4289383150
8.1000004 128.25999 38.82 4289383150
8.1400003 128.66 38.84 4289383150
7.9899998 128.53999 38.830002 4289383150
7.9299998 128.91 38.860001 4289383150
8.3400002 128.53999 38.82 4289383150
8.2399998 128.97 38.860001 4289383150
8.2299995 128.82001 38.849998 4289383150
7.96 129.22 38.939999 4289383150
8.3599997 128.39999 38.82 4289383150
8.6800003 128.45 38.830002 4289383150
8.54 128.37 38.82 4289383150
8.46 128.71001 38.84 4289383150
8.8199997 128.72 38.849998 4289383150
9.04 128.47 38.849998 4289383150
8.9700003 128.41 38.830002 4289383150
9.3199997 128.61 38.860001 4289383150
8.79 128.63 38.84 4289383150
8.6099997 128.97 38.860001 4289383150
8.5799999 128.81 38.84 4289383150
9.1000004 128.86 38.869999 4289383150
9.2299995 128.67 38.849998 4289383150
9.0299997 128.89999 38.860001 4289383150
8.8900003 129.13 38.880001 4289383150
9.3100004 129.17 38.869999 4289383150
9.5200005 128.36 38.849998 4289383150
9.4399996 128.42999 38.849998 4289383150
9.8199997 128.39999 38.82 4289383150
9.7399998 128.67 38.849998 4289383150
9.96 128.39999 38.84 4289383150
10.27 128.56 38.860001 4289383150
10.32 128.48 38.849998 4289383150
9.5200005 128.92 38.860001 4289383150
9.6700001 128.72 38.84 4289383150
9.4700003 128.95 38.849998 4289383150
9.8400002 129.09 38.860001 4289383150
9.9200001 128.98 38.84 4289383150
10.05 128.82001 38.860001 4289383150
10.07 128.67999 38.84 4289383150
10.37 128.91 38.880001 4289383150
10.33 128.92999 38.880001 4289383150
10.17 129.16 38.860001 4289383150
10.56 128.63 38.939999 4289383150
10.59 128.74001 38.880001 4289383150
10.45 129.27 38.880001 4289383150
10.61 129 38.98 4289383150
11.36 129.21001 39.52 4294901760
5.1199999 131.03 38.73 4285060671
5.5900002 129.47 38.740002 4285060671
5.8800001 129.62 38.810001 4285060671
5.3699999 129.73 38.720001 4285060671
5.6799998 129.87 38.799999 4285060671
5.48 130.12 38.77 4285060671
6.1700001 129.73 38.830002 4285060671
5.96 129.98 38.830002 4285060671
6.1999998 130.09 38.849998 4285060671
6.4099998 129.84 38.849998 4285060671
6.5700002 130.03999 38.880001 4285060671
5.2800002 130.39999 38.720001 4285060671
5.7399998 130.23 38.830002 4285060671
5.5300002 130.5 38.799999 4285060671
5.98 130.34 38.860001 4285060671
5.77 130.59 38.849998 4285060671
6.1300001 130.53999 38.889999 4285060671
5.3200002 130.77 38.759998 4285060671
5.5700002 130.84 38.82 4285060671
5.3699999 131.09 38.799999 4285060671
5.71 131.09 38.830002 4285060671
5.9200001 130.82001 38.869999 4285060671
6.1999998 130.91 38.91 4285060671
6.02 131.17999 38.860001 4285060671
6.3499999 130.28999 38.880001 4285060671
5.1599998 131.35001 38.77 4285060671
4.9499998 131.62 38.73 4285060671
5.0900002 131.83 38.830002 4285060671
4.8899999 132.10001 38.759998 4285060671
5.1799998 132.17999 38.830002 4285060671
4.0100002 133.14 38.759998 4285060671
4.4499998 132.61 38.759998 4285060671
4.6799998 132.36 38.740002 4285060671
5.1700001 132.60001 38.869999 4285060671
4.2199998 132.87 38.77 4285060671
4.5 132.95 38.849998 4285060671
4.3000002 133.2 38.84 4285060671
4.9400001 132.84 38.889999 4285060671
4.73 133.12 38.860001 4285060671
5.4899998 131.35001 38.82 4285060671
5.2800002 131.59 38.82 4285060671
5.6100001 131.67 38.830002 4285060671
5.8200002 131.42 38.84 4285060671
6.0300002 131.58 38.860001 4285060671
5.4000001 131.92 38.830002 4285060671
5.6100001 132.10001 38.849998 4285060671
5.8099999 131.84 38.860001 4285060671
5.9699998 132.09 38.880001 4285060671
6.25 131.31 38.889999 4285060671
5.3899999 132.34 38.860001 4285060671
5.54 132.58 38.880001 4285060671
5.7600002 132.34 38.880001 4285060671
5.3499999 132.85001 38.880001 4285060671
5.2199998 130.50999 41.709999 4289357452
5.3600001 129.92 41.619999 4289357452
5.4200001 130.25999 41.73 4289357452
6.1100001 129.83 41.82 4289357452
6.2399998 129.67999 41.799999 4289357452
5.8899999 130.08 41.84 4289357452
5.98 129.87 41.830002 4289357452
6.3200002 129.58 41.810001 4289357452
6.6999998 129.60001 41.810001 4289357452
6.9899998 129.71001 41.830002 4289357452
6.5 129.85001 41.810001 4289357452
6.6799998 129.72 41.799999 4289357452
6.2800002 130.10001 41.82 4289357452
6.4699998 129.94 41.799999 4289357452
6.9000001 129.58 41.799999 4289357452
6.79 129.96001 41.82 4289357452
6.9299998 130.00999 41.810001 4289357452
7.1300001 129.87 41.810001 4289357452
7.1700001 130.03 41.84 4289357452
5.6599998 130.35001 41.830002 4289357452
5.4400001 130.62 41.82 4289357452
5.5900002 130.49001 41.82 4289357452
6.0500002 130.34 41.849998 4289357452
6.2199998 130.17 41.830002 4289357452
5.8899999 130.34 41.84 4289357452
5.8200002 130.60001 41.860001 4289357452
5.3499999 130.69 41.790001 4289357452
5.5900002 130.87 41.849998 4289357452
5.5999999 130.96001 41.830002 4289357452
5.8299999 130.74001 41.849998 4289357452
6.1199999 130.73 41.860001 4289357452
6.1399999 130.61 41.849998 4289357452
5.9000001 130.99001 41.869999 4289357452
6.0500002 131.02 41.849998 4289357452
6.5799999 130.22 41.82 4289357452
6.71 130.2 41.810001 4289357452
6.3600001 130.47 41.84 4289357452
6.48 130.46001 41.84 4289357452
6.7600002 130.55 41.82 4289357452
6.96 130.28999 41.830002 4289357452
7.1900001 130.28 41.84 4289357452
6.9400001 130.48 41.82 4289357452
7.0799999 130.67 41.849998 4289357452
6.5500002 130.78999 41.830002 4289357452
6.73 130.75 41.84 4289357452
6.3099999 131.03 41.869999 4289357452
6.3800001 130.87 41.849998 4289357452
6.6599998 131.17999 41.849998 4289357452
6.8499999 130.92 41.860001 4289357452
7.1900001 130.75 41.84 4289357452
7.25 130.92999 41.849998 4289357452
7 131.03 41.860001 4289357452
7.04 131.17 41.869999 4289357452
5.1399999 132.94 41.869999 4289357452
5.0999999 132.82001 41.84 4289357452
4.9400001 133.2 41.84 4289357452
5.6900001 131.25 41.860001 4289357452
5.48 131.5 41.849998 4289357452
5.5700002 131.37 41.880001 4289357452
5.8200002 131.25 41.849998 4289357452
6.0999999 131.28999 41.869999 4289357452
5.8699999 131.55 41.880001 4289357452
6.0799999 131.52 41.860001 4289357452
5.3899999 131.67999 41.830002 4289357452
5.6300001 131.81 41.880001 4289357452
5.2800002 132.03 41.84 4289357452
5.4200001 132.09 41.869999 4289357452
5.6399999 131.96001 41.860001 4289357452
5.79 131.66 41.860001 4289357452
6.02 131.91 41.880001 4289357452
5.8000002 132.17 41.880001 4289357452
6.1799998 132.21001 41.849998 4289357452
6.04 131.94 41.860001 4289357452
6.46 131.42 41.849998 4289357452
6.6199999 131.14999 41.849998 4289357452
6.3000002 131.3 41.860001 4289357452
6.23 131.64999 41.880001 4289357452
6.6199999 131.67999 41.860001 4289357452
6.8299999 131.42 41.869999 4289357452
7.23 131.41 41.880001 4289357452
7.2600002 131.28999 41.93 4289357452
6.8499999 131.45 41.849998 4289357452
7.0100002 131.67 41.880001 4289357452
6.3699999 131.92 41.889999 4289357452
6.5700002 131.57001 41.880001 4289357452
6.3400002 131.81 41.869999 4289357452
6.5799999 132.17999 41.880001 4289357452
6.7800002 131.92 41.880001 4289357452
7.1399999 131.71001 41.889999 4289357452
7.1500001 132.00999 41.889999 4289357452
6.8000002 131.87 41.860001 4289357452
5.5799999 132.42999 41.889999 4289357452
5.2800002 132.49001 41.900002 4289357452
5.3499999 132.69 41.889999 4289357452
5.5500002 132.3 41.889999 4289357452
5.9000001 132.22 41.900002 4289357452
5.96 132.45 41.869999 4289357452
5.73 132.67 41.900002 4289357452
6.1199999 132.5 41.880001 4289357452
6.1399999 132.64999 41.900002 4289357452
5.4899998 132.78999 41.869999 4289357452
5.54 132.91 41.889999 4289357452
5.3400002 133.16 41.880001 4289357452
5.79 132.62 41.880001 4289357452
5.9299998 132.91 41.900002 4289357452
5.71 133.17999 41.900002 4289357452
5.7600002 133.07001 41.880001 4289357452
6.0700002 132.89 41.889999 4289357452
6.3099999 132.23 41.869999 4289357452
6.3600001 132.41 41.880001 4289357452
6.5999999 132.11 41.860001 4289357452
6.71 132.53999 41.889999 4289357452
6.5599999 132.53 41.880001 4289357452
6.9299998 132.28999 41.880001 4289357452
7.0500002 132.16 41.860001 4289357452
7.1599998 132.49001 41.889999 4289357452
6.8800001 132.39999 41.869999 4289357452
6.9499998 132.73 41.900002 4289357452
6.3699999 132.75 41.889999 4289357452
6.48 132.78999 41.900002 4289357452
6.27 133.03999 41.900002 4289357452
6.6100001 133.02 41.900002 4289357452
6.52 133.25999 41.900002 4289357452
6.75 133 41.880001 4289357452
6.8499999 132.8 41.919998 4289357452
7.1399999 132.69 41.889999 4289357452
7.1999998 132.85001 41.880001 4289357452
6.9699998 133.10001 41.900002 4289357452
7.1500001 133.2 41.889999 4289357452
8.0600004 129.03 38.889999 4289383150
8.0200005 129.36 38.950001 4289383150
8.3100004 129.3 38.900002 4289383150
8.2600002 129.64999 38.950001 4289383150
8.1099997 129.88 39.009998 4289383150
8.3999996 129.24001 38.869999 4289383150
8.4799995 129.09 38.860001 4289383150
8.8199997 129.07001 38.860001 4289383150
8.6700001 129.39 38.880001 4289383150
8.7200003 129.37 38.880001 4289383150
9.1000004 129.41 38.880001 4289383150
9.2799997 129.17999 38.860001 4289383150
9.0600004 129.34 38.869999 4289383150
8.8900003 129.66 38.900002 4289383150
8.5500002 129.57001 38.91 4289383150
8.5299997 129.92 38.990002 4289383150
8.8000002 129.83 38.950001 4289383150
9.3000002 129.62 38.900002 4289383150
8.9799995 129.64999 38.91 4289383150
9.1800003 129.83 38.919998 4289383150
9.25 129.92999 38.959999 4289383150
8.3800001 130.14999 39.060001 4289383150
8.7700005 130.19 39.02 4289383150
9.6199999 129.34 38.860001 4289383150
9.71 129.24001 38.849998 4289383150
9.4099998 129.59 38.849998 4289383150
9.5299997 129.48 38.880001 4289383150
9.96 129.39999 38.860001 4289383150
10.15 129.25 38.860001 4289383150
9.5299997 129.86 38.939999 4289383150
10.53 129.21001 38.880001 4289383150
11.24 129.17999 39.5 4294901760
11.28 129.64 39.540001 4294901760
11.22 129.61 39.549999 4294901760
11.34 129.89999 39.57 4294901760
7.3899999 129.75999 41.849998 4289357452
7.3800001 129.75 41.82 4289357452
7.7399998 129.89 41.849998 4289357452
7.5300002 130.14999 41.849998 4289357452
7.8299999 129.87 41.84 4289357452
7.6399999 130.03 41.849998 4289357452
8.0900002 129.97 41.830002 4289357452
8.5299997 129.89 41.869999 4289357452
8.3100004 130.12 41.860001 4289357452
8.7600002 130.02 41.830002 4289357452
8.6700001 130.25999 41.849998 4289357452
8.8900003 129.99001 41.830002 4289357452
9.1000004 130.22 41.849998 4289357452
7.4200001 130.14 41.84 4289357452
7.3000002 130.41 41.860001 4289357452
7.6300001 130.42999 41.880001 4289357452
7.4499998 130.69 41.860001 4289357452
7.6700001 130.45 41.849998 4289357452
8.0699997 130.14 41.860001 4289357452
8.0900002 130.36 41.869999 4289357452
7.9000001 130.63 41.860001 4289357452
7.8899999 130.31 41.860001 4289357452
8.3199997 130.42 41.849998 4289357452
7.4099998 130.58 41.830002 4289357452
7.6799998 130.88 41.849998 4289357452
7.48 131.14999 41.84 4289357452
7.4400001 131.03 41.84 4289357452
7.6500001 130.84 41.830002 4289357452
7.9299998 130.74001 41.84 4289357452
8.2399998 130.78 41.830002 4289357452
8.1300001 130.58 41.849998 4289357452
8.0100002 131.02 41.849998 4289357452
8.1800003 131.03 41.830002 4289357452
8.2600002 131.24001 41.84 4289357452
8.4200001 130.08 41.849998 4289357452
8.4499998 130.52 41.830002 4289357452
8.6800003 130.71001 41.849998 4289357452
8.6800003 130.37 41.860001 4289357452
8.8999996 130.47 41.849998 4289357452
9 130.28999 41.830002 4289357452
9.1899996 130.53 41.830002 4289357452
9.3400002 130.12 41.93 4289357452
8.9799995 130.78 41.830002 4289357452
9.25 130.55 41.849998 4289357452
8.5600004 130.72 41.830002 4289357452
8.4799995 130.97 41.860001 4289357452
8.7600002 131.02 41.860001 4289357452
8.3900003 130.85001 41.889999 4289357452
8.5299997 131.28 41.869999 4289357452
8.8299999 131 41.84 4289357452
8.9300003 130.67 41.84 4289357452
9.1199999 130.91 41.849998 4289357452
8.9099998 131.16 41.849998 4289357452
9.2299995 131.14 41.849998 4289357452
9.1700001 130.99001 41.830002 4289357452
9.3900003 130.25999 41.860001 4289357452
9.5299997 130.41 41.869999 4289357452
9.3199997 130.66 41.860001 4289357452
9.5500002 130.42 41.84 4289357452
9.6700001 130.61 41.860001 4289357452
9.8999996 130.37 41.84 4289357452
10.08 130.57001 41.849998 4289357452
9.9099998 130.35001 41.849998 4289357452
9.46 130.87 41.860001 4289357452
9.4799995 130.82001 41.84 4289357452
9.7799997 130.69 41.84 4289357452
9.6599998 131.08 41.860001 4289357452
9.7200003 131.09 41.880001 4289357452
9.8699999 130.83 41.860001 4289357452
10.16 130.64 41.84 4289357452
10.24 130.82001 41.849998 4289357452
10.03 131.08 41.860001 4289357452
10.02 130.96001 41.849998 4289357452
10.4 130.92 41.849998 4289357452
10.16 131.28 41.869999 4289357452
10.47 130.56 41.84 4289357452
10.49 130.59 41.830002 4289357452
10.59 130.78999 41.860001 4289357452
10.87 130.57001 41.860001 4289357452
10.9 130.78999 41.889999 4289357452
11.34 130.78 41.880001 4289357452
10.37 131.03999 41.849998 4289357452
10.69 131.03999 41.889999 4289357452
10.74 130.86 41.869999 4289357452
10.47 131.3 41.900002 4289357452
11.1 131.00999 41.900002 4289357452
11.11 130.85001 41.889999 4289357452
11.31 130.67999 41.869999 4289357452
10.88 131.25999 41.93 4289357452
10.99 131.13 41.91 4289357452
11.35 131.11 41.900002 4289357452
7.5900002 131.5 41.860001 4289357452
7.6799998 131.32001 41.84 4289357452
7.3899999 131.75999 41.869999 4289357452
7.8200002 131.27 41.830002 4289357452
7.9000001 131.11 41.830002 4289357452
8.0299997 131.49001 41.860001 4289357452
7.8099999 131.75 41.860001 4289357452
8.1700001 131.38 41.860001 4289357452
7.4699998 131.58 41.860001 4289357452
7.5700002 132 41.869999 4289357452
7.4000001 132 41.880001 4289357452
